ply
format ascii 1.0
element vertex 1320
property float x
property float y
property float z
property uchar red
property uchar green
property uchar blue
end_header
-3.0 -64.0 0.16666666666666666 89 83 78
-2.0 -64.0 0.16666666666666666 102 88 84
-1.0 -64.0 0.16666666666666666 48 47 39
28.0 -64.0 0.058823529411764705 42 77 80
63.0 -64.0 0.038461538461538464 31 33 12
64.0 -64.0 0.038461538461538464 85 82 60
73.0 -64.0 0.041666666666666664 75 68 63
76.0 -64.0 0.08333333333333333 104 95 67
87.0 -64.0 0.125 53 47 40
97.0 -64.0 0.08333333333333333 15 29 18
113.0 -64.0 0.1 45 60 59
163.0 -64.0 0.03571428571428571 130 115 103
-187.0 -63.0 0.125 15 20 17
-150.0 -63.0 0.1 0 0 0
-116.0 -63.0 0.07142857142857142 13 31 37
-104.0 -63.0 0.1 9 15 12
-98.0 -63.0 0.07692307692307693 6 13 11
-77.0 -63.0 0.125 4 10 10
-40.0 -63.0 0.0625 115 98 94
-21.0 -63.0 0.16666666666666666 22 30 20
-3.0 -63.0 0.16666666666666666 84 82 74
34.0 -63.0 0.041666666666666664 148 122 68
64.0 -63.0 0.038461538461538464 77 76 53
67.0 -63.0 0.16666666666666666 96 83 65
73.0 -63.0 0.041666666666666664 79 71 64
113.0 -63.0 0.1 46 61 60
117.0 -63.0 0.1 27 49 53
163.0 -63.0 0.03571428571428571 127 115 100
-187.0 -62.0 0.125 15 22 17
-150.0 -62.0 0.1 0 0 0
-116.0 -62.0 0.07142857142857142 12 26 38
-90.0 -62.0 0.14285714285714285 11 19 14
-77.0 -62.0 0.125 5 11 9
-21.0 -62.0 0.16666666666666666 24 26 22
20.0 -62.0 0.0625 56 57 53
28.0 -62.0 0.058823529411764705 137 120 60
64.0 -62.0 0.038461538461538464 64 65 43
67.0 -62.0 0.16666666666666666 97 84 66
73.0 -62.0 0.041666666666666664 86 78 71
113.0 -62.0 0.1 43 60 58
122.0 -62.0 0.043478260869565216 23 39 46
140.0 -62.0 0.2 107 100 85
145.0 -62.0 0.1 118 102 93
163.0 -62.0 0.03571428571428571 123 112 96
-187.0 -61.0 0.125 15 21 18
-151.0 -61.0 0.1 67 66 63
-95.0 -61.0 0.08333333333333333 8 17 12
-91.0 -61.0 0.08333333333333333 7 14 11
-81.0 -61.0 0.08333333333333333 5 11 8
-79.0 -61.0 0.08333333333333333 5 10 8
-13.0 -61.0 0.08333333333333333 37 43 30
-5.0 -61.0 0.16666666666666666 47 51 38
28.0 -61.0 0.058823529411764705 154 129 62
64.0 -61.0 0.038461538461538464 49 54 31
73.0 -61.0 0.041666666666666664 82 75 68
76.0 -61.0 0.04 84 76 47
95.0 -61.0 0.1 4 11 9
96.0 -61.0 0.1 6 14 10
113.0 -61.0 0.1 45 58 57
114.0 -61.0 0.1 35 54 60
133.0 -61.0 0.1 124 110 98
145.0 -61.0 0.1 108 96 84
163.0 -61.0 0.03571428571428571 131 115 103
180.0 -61.0 0.09090909090909091 133 119 106
-187.0 -60.0 0.125 18 23 19
-151.0 -60.0 0.1 71 69 68
-150.0 -60.0 0.1 0 0 0
-109.0 -60.0 0.08333333333333333 4 11 9
-108.0 -60.0 0.08333333333333333 6 14 11
-91.0 -60.0 0.08333333333333333 5 12 10
-88.0 -60.0 0.08333333333333333 13 21 19
-87.0 -60.0 0.08333333333333333 9 16 11
-86.0 -60.0 0.08333333333333333 8 15 12
-84.0 -60.0 0.08333333333333333 9 16 14
-83.0 -60.0 0.08333333333333333 12 17 16
-82.0 -60.0 0.08333333333333333 6 12 10
-79.0 -60.0 0.08333333333333333 7 12 10
-13.0 -60.0 0.08333333333333333 35 42 28
18.0 -60.0 0.04 60 62 44
64.0 -60.0 0.038461538461538464 43 46 20
74.0 -60.0 0.041666666666666664 60 56 47
95.0 -60.0 0.1 5 10 7
96.0 -60.0 0.1 6 13 10
163.0 -60.0 0.03571428571428571 137 119 105
-187.0 -59.0 0.125 18 24 17
-158.0 -59.0 0.1 88 95 97
-151.0 -59.0 0.1 69 68 67
-150.0 -59.0 0.1 0 0 0
-127.0 -59.0 0.5 12 23 34
-125.0 -59.0 0.25 11 25 35
-110.0 -59.0 0.09090909090909091 7 14 15
-109.0 -59.0 0.08333333333333333 5 12 10
-108.0 -59.0 0.08333333333333333 6 13 11
-107.0 -59.0 0.08333333333333333 7 13 10
-91.0 -59.0 0.08333333333333333 6 12 11
-90.0 -59.0 0.08333333333333333 6 13 11
-89.0 -59.0 0.08333333333333333 7 14 11
-88.0 -59.0 0.08333333333333333 8 17 13
-87.0 -59.0 0.08333333333333333 6 14 11
-83.0 -59.0 0.08333333333333333 8 15 15
-82.0 -59.0 0.08333333333333333 6 14 12
-33.0 -59.0 0.07142857142857142 122 114 102
-29.0 -59.0 0.08333333333333333 127 117 105
-13.0 -59.0 0.08333333333333333 33 39 27
60.0 -59.0 0.1 11 21 13
64.0 -59.0 0.038461538461538464 35 39 14
74.0 -59.0 0.041666666666666664 76 68 60
131.0 -59.0 0.07142857142857142 129 114 102
142.0 -59.0 0.1 127 113 100
143.0 -59.0 0.1 122 108 96
145.0 -59.0 0.1 102 93 80
-187.0 -58.0 0.125 17 25 16
-158.0 -58.0 0.1 90 97 99
-151.0 -58.0 0.1 69 67 69
-150.0 -58.0 0.1 0 0 0
-147.0 -58.0 0.1 6 11 10
-146.0 -58.0 0.1 6 15 14
-125.0 -58.0 0.25 11 23 34
-112.0 -58.0 0.1 11 24 38
-111.0 -58.0 0.1 11 22 29
-83.0 -58.0 0.08333333333333333 17 26 23
-34.0 -58.0 0.07142857142857142 137 122 112
-33.0 -58.0 0.07142857142857142 131 118 107
-31.0 -58.0 0.07142857142857142 135 120 112
-21.0 -58.0 0.2 42 50 38
-13.0 -58.0 0.08333333333333333 31 36 28
21.0 -58.0 0.04 70 81 71
22.0 -58.0 0.04 105 96 91
64.0 -58.0 0.038461538461538464 32 35 12
74.0 -58.0 0.041666666666666664 78 71 68
176.0 -58.0 0.25 133 117 104
-187.0 -57.0 0.14285714285714285 15 24 18
-158.0 -57.0 0.1 95 101 103
-155.0 -57.0 0.1111111111111111 84 93 94
-151.0 -57.0 0.1 73 71 70
-150.0 -57.0 0.1 0 0 0
-148.0 -57.0 0.1 2 12 10
-147.0 -57.0 0.1 5 12 12
-128.0 -57.0 0.037037037037037035 8 19 28
-117.0 -57.0 0.08333333333333333 12 26 36
-112.0 -57.0 0.1 12 25 35
-91.0 -57.0 0.08333333333333333 5 11 10
-90.0 -57.0 0.08333333333333333 11 19 16
-88.0 -57.0 0.08333333333333333 28 32 29
-87.0 -57.0 0.08333333333333333 30 31 27
-86.0 -57.0 0.08333333333333333 29 30 31
-85.0 -57.0 0.08333333333333333 25 26 25
-84.0 -57.0 0.08333333333333333 17 22 17
-83.0 -57.0 0.08333333333333333 34 38 33
-21.0 -57.0 0.2 38 50 36
20.0 -57.0 0.04 54 57 52
64.0 -57.0 0.038461538461538464 33 35 14
77.0 -57.0 0.08333333333333333 100 89 60
-187.0 -56.0 0.14285714285714285 18 24 18
-158.0 -56.0 0.1 96 102 104
-157.0 -56.0 0.1 87 95 97
-155.0 -56.0 0.1111111111111111 80 90 92
-150.0 -56.0 0.1 0 1 0
-149.0 -56.0 0.1 12 17 18
-148.0 -56.0 0.1 3 13 12
-147.0 -56.0 0.1 6 12 13
-140.0 -56.0 0.1 12 25 37
-139.0 -56.0 0.1 11 23 34
-131.0 -56.0 0.1 12 22 35
-128.0 -56.0 0.037037037037037035 8 20 28
-112.0 -56.0 0.1 12 24 36
-92.0 -56.0 0.08333333333333333 7 14 15
-91.0 -56.0 0.08333333333333333 5 12 10
-87.0 -56.0 0.08333333333333333 17 27 20
-86.0 -56.0 0.08333333333333333 23 32 25
-84.0 -56.0 0.08333333333333333 23 30 26
-83.0 -56.0 0.08333333333333333 23 29 22
-82.0 -56.0 0.08333333333333333 22 26 24
-77.0 -56.0 0.1111111111111111 6 15 10
-51.0 -56.0 0.08333333333333333 105 104 86
-49.0 -56.0 0.08333333333333333 107 105 88
20.0 -56.0 0.04 57 60 57
98.0 -56.0 0.1 39 48 40
148.0 -56.0 0.1111111111111111 127 115 98
176.0 -56.0 0.2 126 111 99
-187.0 -55.0 0.14285714285714285 16 25 17
-163.0 -55.0 0.03333333333333333 54 60 56
-158.0 -55.0 0.1 97 103 106
-157.0 -55.0 0.1 84 93 95
-156.0 -55.0 0.1 84 92 96
-155.0 -55.0 0.1 78 87 88
-149.0 -55.0 0.1 10 15 17
-148.0 -55.0 0.1 4 12 12
-147.0 -55.0 0.1 6 12 11
-130.0 -55.0 0.05 12 24 36
-129.0 -55.0 0.05 12 22 35
-124.0 -55.0 0.07142857142857142 11 25 37
-123.0 -55.0 0.07142857142857142 11 25 36
-87.0 -55.0 0.08333333333333333 6 15 10
-86.0 -55.0 0.08333333333333333 8 16 13
-84.0 -55.0 0.08333333333333333 8 18 12
-83.0 -55.0 0.08333333333333333 7 16 11
-51.0 -55.0 0.08333333333333333 33 50 29
-49.0 -55.0 0.08333333333333333 35 52 32
-28.0 -55.0 0.08333333333333333 42 56 43
65.0 -55.0 0.038461538461538464 59 59 33
126.0 -55.0 0.041666666666666664 108 106 87
146.0 -55.0 0.03333333333333333 128 116 102
147.0 -55.0 0.03333333333333333 127 115 100
-187.0 -54.0 0.14285714285714285 17 25 17
-163.0 -54.0 0.03333333333333333 50 55 52
-158.0 -54.0 0.1 102 104 109
-157.0 -54.0 0.1 83 90 92
-156.0 -54.0 0.1 79 89 91
-155.0 -54.0 0.1 74 83 83
-149.0 -54.0 0.1 10 15 16
-148.0 -54.0 0.1 5 13 12
-147.0 -54.0 0.1 6 12 11
-123.0 -54.0 0.07142857142857142 11 24 36
-105.0 -54.0 0.07142857142857142 11 20 24
-91.0 -54.0 0.08333333333333333 5 12 9
-90.0 -54.0 0.08333333333333333 8 15 13
-89.0 -54.0 0.08333333333333333 7 14 12
-88.0 -54.0 0.08333333333333333 7 13 13
-87.0 -54.0 0.08333333333333333 8 15 12
-86.0 -54.0 0.08333333333333333 11 17 18
-83.0 -54.0 0.08333333333333333 10 18 15
-51.0 -54.0 0.08333333333333333 32 39 31
-49.0 -54.0 0.08333333333333333 30 36 32
-48.0 -54.0 0.08333333333333333 29 36 30
15.0 -54.0 0.034482758620689655 0 9 3
65.0 -54.0 0.038461538461538464 46 49 24
97.0 -54.0 0.09090909090909091 7 18 12
147.0 -54.0 0.03333333333333333 116 107 94
150.0 -54.0 0.1111111111111111 115 105 92
153.0 -54.0 0.08333333333333333 113 105 88
175.0 -54.0 0.25 123 108 94
-187.0 -53.0 0.14285714285714285 16 23 18
-163.0 -53.0 0.03333333333333333 50 56 51
-158.0 -53.0 0.1 106 108 109
-157.0 -53.0 0.1 85 91 91
-156.0 -53.0 0.1 78 87 89
-149.0 -53.0 0.1 12 15 16
-148.0 -53.0 0.1 2 11 10
-147.0 -53.0 0.1 6 12 13
-123.0 -53.0 0.07142857142857142 12 23 35
-111.0 -53.0 0.03571428571428571 12 24 35
-91.0 -53.0 0.1 4 14 13
-90.0 -53.0 0.1 7 16 16
-85.0 -53.0 0.125 10 18 16
-82.0 -53.0 0.1111111111111111 10 18 17
-58.0 -53.0 0.08333333333333333 149 134 128
-51.0 -53.0 0.08333333333333333 30 35 28
-49.0 -53.0 0.08333333333333333 34 35 33
-24.0 -53.0 0.08333333333333333 93 84 82
97.0 -53.0 0.1 7 18 11
183.0 -53.0 0.09090909090909091 130 113 100
-187.0 -52.0 0.14285714285714285 17 23 18
-158.0 -52.0 0.1 110 110 111
-157.0 -52.0 0.1 83 90 90
-156.0 -52.0 0.1 75 84 87
-149.0 -52.0 0.1 10 15 16
-148.0 -52.0 0.1 4 13 11
-147.0 -52.0 0.1 6 13 14
-107.0 -52.0 0.03571428571428571 12 25 37
-96.0 -52.0 0.07142857142857142 12 26 39
-91.0 -52.0 0.1 5 13 13
-90.0 -52.0 0.1 6 17 18
-89.0 -52.0 0.1 10 21 30
-88.0 -52.0 0.1 12 23 33
-59.0 -52.0 0.08333333333333333 71 83 64
-33.0 -52.0 0.058823529411764705 47 46 41
-17.0 -52.0 0.08333333333333333 20 25 20
29.0 -52.0 0.03333333333333333 92 90 88
74.0 -52.0 0.043478260869565216 49 53 38
97.0 -52.0 0.1 8 18 12
183.0 -52.0 0.09090909090909091 130 116 98
-187.0 -51.0 0.14285714285714285 17 24 16
-168.0 -51.0 0.08333333333333333 82 91 90
-158.0 -51.0 0.1 114 117 115
-157.0 -51.0 0.1 85 90 91
-156.0 -51.0 0.1 75 84 88
-148.0 -51.0 0.1 4 13 11
-147.0 -51.0 0.1 5 11 11
-146.0 -51.0 0.1 5 13 12
-145.0 -51.0 0.1 4 12 11
-122.0 -51.0 0.05 11 27 38
-108.0 -51.0 0.034482758620689655 11 24 37
-91.0 -51.0 0.1 6 14 13
-90.0 -51.0 0.1 5 14 17
-89.0 -51.0 0.1 9 22 32
-88.0 -51.0 0.1 13 28 39
-63.0 -51.0 0.07142857142857142 49 53 44
-60.0 -51.0 0.08333333333333333 59 65 57
-59.0 -51.0 0.08333333333333333 60 63 54
-46.0 -51.0 0.08333333333333333 12 23 17
-42.0 -51.0 0.08333333333333333 14 28 18
-41.0 -51.0 0.08333333333333333 12 26 16
32.0 -51.0 0.034482758620689655 93 64 51
37.0 -51.0 0.1111111111111111 88 83 66
89.0 -51.0 0.14285714285714285 18 17 16
97.0 -51.0 0.1 7 17 10
182.0 -51.0 0.09090909090909091 128 114 97
183.0 -51.0 0.09090909090909091 130 118 98
-187.0 -50.0 0.14285714285714285 15 23 18
-168.0 -50.0 0.08333333333333333 81 89 89
-158.0 -50.0 0.1 111 114 111
-157.0 -50.0 0.1 84 89 90
-156.0 -50.0 0.1 73 81 85
-148.0 -50.0 0.1 3 11 10
-147.0 -50.0 0.1 8 12 13
-145.0 -50.0 0.1 4 10 10
-137.0 -50.0 0.1 10 20 29
-132.0 -50.0 0.07142857142857142 11 24 36
-128.0 -50.0 0.1 12 25 35
-119.0 -50.0 0.05555555555555555 10 21 31
-117.0 -50.0 0.05555555555555555 9 22 33
-107.0 -50.0 0.03571428571428571 10 23 35
-91.0 -50.0 0.1 6 14 16
-90.0 -50.0 0.1 5 14 13
-64.0 -50.0 0.07692307692307693 52 53 50
-60.0 -50.0 0.08333333333333333 52 54 49
-59.0 -50.0 0.08333333333333333 53 53 47
-52.0 -50.0 0.08333333333333333 39 44 35
-46.0 -50.0 0.08333333333333333 7 16 12
-41.0 -50.0 0.08333333333333333 6 14 10
12.0 -50.0 0.041666666666666664 30 35 22
33.0 -50.0 0.03333333333333333 76 95 102
70.0 -50.0 0.2 92 81 60
89.0 -50.0 0.14285714285714285 30 37 31
97.0 -50.0 0.1 7 17 10
98.0 -50.0 0.06666666666666667 26 40 30
115.0 -50.0 0.0625 130 91 12
182.0 -50.0 0.09090909090909091 128 114 96
183.0 -50.0 0.09090909090909091 132 117 100
-187.0 -49.0 0.14285714285714285 16 24 17
-168.0 -49.0 0.08333333333333333 79 86 87
-158.0 -49.0 0.1 119 120 118
-157.0 -49.0 0.1 83 90 89
-145.0 -49.0 0.1 4 11 8
-137.0 -49.0 0.1 9 21 29
-128.0 -49.0 0.1 12 25 36
-119.0 -49.0 0.05555555555555555 10 22 33
-117.0 -49.0 0.05555555555555555 8 20 29
-115.0 -49.0 0.07142857142857142 10 23 36
-107.0 -49.0 0.03571428571428571 12 24 36
-91.0 -49.0 0.1 7 15 20
-64.0 -49.0 0.07692307692307693 53 54 48
-63.0 -49.0 0.07692307692307693 49 52 45
-60.0 -49.0 0.08333333333333333 50 49 44
-59.0 -49.0 0.08333333333333333 51 51 43
-48.0 -49.0 0.08333333333333333 6 13 12
-47.0 -49.0 0.08333333333333333 6 13 10
-42.0 -49.0 0.08333333333333333 7 15 13
-41.0 -49.0 0.08333333333333333 6 14 10
25.0 -49.0 0.05 105 112 105
34.0 -49.0 0.06666666666666667 95 93 98
73.0 -49.0 0.058823529411764705 90 57 42
90.0 -49.0 0.16666666666666666 40 42 37
116.0 -49.0 0.058823529411764705 144 101 15
161.0 -49.0 0.16666666666666666 131 117 103
182.0 -49.0 0.09090909090909091 130 116 100
-188.0 -48.0 0.14285714285714285 15 24 17
-158.0 -48.0 0.1 114 118 114
-157.0 -48.0 0.1 85 91 93
-156.0 -48.0 0.1 76 84 89
-151.0 -48.0 0.1 49 55 55
-114.0 -48.0 0.07142857142857142 12 27 36
-107.0 -48.0 0.03571428571428571 13 28 39
-91.0 -48.0 0.1 7 17 19
-64.0 -48.0 0.07692307692307693 48 50 45
-63.0 -48.0 0.07692307692307693 49 50 42
-62.0 -48.0 0.08333333333333333 48 49 43
-60.0 -48.0 0.08333333333333333 49 48 44
-59.0 -48.0 0.08333333333333333 48 48 43
-45.0 -48.0 0.1 11 18 14
-40.0 -48.0 0.14285714285714285 17 22 20
-39.0 -48.0 0.14285714285714285 16 21 18
69.0 -48.0 0.03333333333333333 131 63 33
70.0 -48.0 0.034482758620689655 138 67 32
90.0 -48.0 0.16666666666666666 40 38 36
98.0 -48.0 0.06666666666666667 20 33 28
116.0 -48.0 0.058823529411764705 147 102 17
173.0 -48.0 0.125 129 116 101
182.0 -48.0 0.09090909090909091 131 117 99
-188.0 -47.0 0.14285714285714285 14 25 18
-158.0 -47.0 0.1 92 101 100
-157.0 -47.0 0.1 52 69 72
-156.0 -47.0 0.1 55 73 84
-151.0 -47.0 0.1 43 52 53
-134.0 -47.0 0.1 12 25 36
-89.0 -47.0 0.1 6 18 22
-73.0 -47.0 0.0625 80 80 75
-64.0 -47.0 0.07692307692307693 46 48 45
-63.0 -47.0 0.07692307692307693 47 48 43
-62.0 -47.0 0.08333333333333333 48 51 44
-61.0 -47.0 0.08333333333333333 47 48 41
-60.0 -47.0 0.08333333333333333 44 51 43
-56.0 -47.0 0.125 11 20 17
-45.0 -47.0 0.1 17 24 20
12.0 -47.0 0.08333333333333333 25 29 21
27.0 -47.0 0.0625 128 131 121
34.0 -47.0 0.06666666666666667 151 140 132
69.0 -47.0 0.03333333333333333 154 71 32
70.0 -47.0 0.034482758620689655 160 74 34
90.0 -47.0 0.16666666666666666 32 31 31
98.0 -47.0 0.06666666666666667 20 34 26
115.0 -47.0 0.058823529411764705 131 90 10
116.0 -47.0 0.058823529411764705 146 102 14
149.0 -47.0 0.045454545454545456 131 118 102
150.0 -47.0 0.045454545454545456 132 121 106
177.0 -47.0 0.08333333333333333 126 112 97
182.0 -47.0 0.09090909090909091 131 116 97
-188.0 -46.0 0.14285714285714285 15 23 16
-158.0 -46.0 0.1 192 168 174
-131.0 -46.0 0.5 10 23 35
-117.0 -46.0 0.03571428571428571 7 19 25
-116.0 -46.0 0.03571428571428571 12 26 37
-113.0 -46.0 0.045454545454545456 11 22 34
-63.0 -46.0 0.08333333333333333 46 49 42
-62.0 -46.0 0.08333333333333333 49 50 45
-61.0 -46.0 0.08333333333333333 49 49 42
-60.0 -46.0 0.08333333333333333 46 49 42
-14.0 -46.0 0.08333333333333333 10 18 14
-7.0 -46.0 0.1 21 26 18
2.0 -46.0 0.125 25 29 22
4.0 -46.0 0.125 22 29 19
69.0 -46.0 0.03333333333333333 169 76 32
70.0 -46.0 0.034482758620689655 173 77 33
98.0 -46.0 0.06666666666666667 18 30 22
115.0 -46.0 0.058823529411764705 130 90 11
116.0 -46.0 0.058823529411764705 146 102 15
149.0 -46.0 0.045454545454545456 113 106 91
150.0 -46.0 0.045454545454545456 117 110 94
152.0 -46.0 0.043478260869565216 115 107 93
178.0 -46.0 0.09090909090909091 126 114 99
-188.0 -45.0 0.14285714285714285 14 23 18
-168.0 -45.0 0.09090909090909091 78 85 87
-160.0 -45.0 0.08333333333333333 144 146 147
-113.0 -45.0 0.045454545454545456 11 24 42
-14.0 -45.0 0.08333333333333333 13 19 17
-13.0 -45.0 0.08333333333333333 6 15 11
-12.0 -45.0 0.09090909090909091 7 17 11
-11.0 -45.0 0.09090909090909091 7 18 11
-9.0 -45.0 0.1 8 19 11
24.0 -45.0 0.05263157894736842 139 126 129
69.0 -45.0 0.03333333333333333 176 76 28
107.0 -45.0 0.037037037037037035 92 87 93
115.0 -45.0 0.058823529411764705 132 91 10
123.0 -45.0 0.07692307692307693 163 112 18
150.0 -45.0 0.045454545454545456 103 97 82
177.0 -45.0 0.08333333333333333 120 105 92
-188.0 -44.0 0.14285714285714285 14 22 14
-107.0 -44.0 0.1 127 105 115
-106.0 -44.0 0.1 128 106 114
-22.0 -44.0 0.08333333333333333 19 27 23
-13.0 -44.0 0.08333333333333333 12 17 13
-9.0 -44.0 0.1 11 17 12
115.0 -44.0 0.058823529411764705 131 92 10
116.0 -44.0 0.058823529411764705 146 102 15
150.0 -44.0 0.045454545454545456 127 110 102
177.0 -44.0 0.08333333333333333 131 116 101
-188.0 -43.0 0.14285714285714285 14 21 17
-105.0 -43.0 0.1 237 203 198
-22.0 -43.0 0.08333333333333333 8 17 14
-13.0 -43.0 0.08333333333333333 22 25 20
32.0 -43.0 0.047619047619047616 150 142 134
63.0 -43.0 0.03333333333333333 75 60 55
66.0 -43.0 0.034482758620689655 155 69 29
69.0 -43.0 0.03333333333333333 182 77 29
108.0 -43.0 0.0625 13 32 35
109.0 -43.0 0.0625 38 51 54
110.0 -43.0 0.0625 21 32 22
115.0 -43.0 0.058823529411764705 126 87 13
116.0 -43.0 0.058823529411764705 137 96 13
151.0 -43.0 0.045454545454545456 132 118 104
-188.0 -42.0 0.14285714285714285 13 22 16
-28.0 -42.0 0.0625 48 53 44
-21.0 -42.0 0.08333333333333333 19 24 21
-20.0 -42.0 0.08333333333333333 27 30 30
63.0 -42.0 0.03333333333333333 81 67 55
66.0 -42.0 0.034482758620689655 158 70 27
67.0 -42.0 0.034482758620689655 168 72 26
83.0 -42.0 0.037037037037037035 200 87 38
95.0 -42.0 0.08333333333333333 115 56 30
108.0 -42.0 0.0625 19 34 38
109.0 -42.0 0.0625 38 48 51
115.0 -42.0 0.058823529411764705 133 91 12
116.0 -42.0 0.058823529411764705 146 100 14
-188.0 -41.0 0.14285714285714285 12 22 16
-77.0 -41.0 0.08333333333333333 30 36 30
-43.0 -41.0 0.1 16 23 15
-33.0 -41.0 0.08333333333333333 12 18 15
-31.0 -41.0 0.08333333333333333 12 19 15
23.0 -41.0 0.05555555555555555 108 113 100
61.0 -41.0 0.03333333333333333 32 44 26
63.0 -41.0 0.03333333333333333 58 53 31
66.0 -41.0 0.034482758620689655 162 73 30
67.0 -41.0 0.034482758620689655 171 73 26
78.0 -41.0 0.03333333333333333 209 106 60
115.0 -41.0 0.058823529411764705 133 93 10
116.0 -41.0 0.058823529411764705 147 102 15
131.0 -41.0 0.07142857142857142 79 61 12
182.0 -41.0 0.1 128 114 97
183.0 -41.0 0.1 132 117 98
-188.0 -40.0 0.14285714285714285 11 18 15
-108.0 -40.0 0.1 10 25 15
-107.0 -40.0 0.1 11 24 14
-79.0 -40.0 0.08333333333333333 14 25 15
-77.0 -40.0 0.08333333333333333 23 32 25
-68.0 -40.0 0.08333333333333333 26 32 28
63.0 -40.0 0.03333333333333333 68 54 30
64.0 -40.0 0.03333333333333333 135 73 42
66.0 -40.0 0.034482758620689655 168 73 30
73.0 -40.0 0.03333333333333333 193 82 30
103.0 -40.0 0.07692307692307693 179 172 147
115.0 -40.0 0.058823529411764705 133 94 12
116.0 -40.0 0.058823529411764705 147 102 17
160.0 -40.0 0.2 127 114 101
182.0 -40.0 0.1 129 116 99
183.0 -40.0 0.1 132 118 100
-188.0 -39.0 0.14285714285714285 12 22 16
-170.0 -39.0 0.1 71 81 81
-128.0 -39.0 0.1 13 20 16
-115.0 -39.0 0.125 6 15 10
-114.0 -39.0 0.125 8 15 13
-109.0 -39.0 0.1 6 15 10
-108.0 -39.0 0.1 7 16 12
-107.0 -39.0 0.1 6 15 11
-79.0 -39.0 0.08333333333333333 8 17 12
-77.0 -39.0 0.08333333333333333 10 17 13
-75.0 -39.0 0.08333333333333333 14 23 18
-73.0 -39.0 0.08333333333333333 18 27 20
-72.0 -39.0 0.08333333333333333 22 32 27
-71.0 -39.0 0.08333333333333333 17 27 21
-43.0 -39.0 0.08333333333333333 31 35 28
-26.0 -39.0 0.0625 55 53 51
-25.0 -39.0 0.0625 40 43 35
-24.0 -39.0 0.0625 57 55 53
63.0 -39.0 0.03333333333333333 92 67 39
67.0 -39.0 0.03333333333333333 174 75 26
68.0 -39.0 0.03333333333333333 180 77 26
69.0 -39.0 0.03333333333333333 183 77 27
73.0 -39.0 0.03333333333333333 193 80 29
103.0 -39.0 0.07692307692307693 118 90 72
104.0 -39.0 0.07692307692307693 161 163 134
115.0 -39.0 0.058823529411764705 134 94 11
116.0 -39.0 0.058823529411764705 147 104 18
159.0 -39.0 0.16666666666666666 98 92 77
182.0 -39.0 0.1 129 116 97
183.0 -39.0 0.1 133 118 99
-188.0 -38.0 0.14285714285714285 13 22 15
-170.0 -38.0 0.1 72 80 82
-131.0 -38.0 0.08333333333333333 7 13 12
-129.0 -38.0 0.1 26 29 24
-128.0 -38.0 0.1 32 32 31
-115.0 -38.0 0.125 10 15 12
-114.0 -38.0 0.125 13 18 15
-91.0 -38.0 0.09090909090909091 11 17 13
-88.0 -38.0 0.25 11 18 15
-43.0 -38.0 0.08333333333333333 30 39 35
-26.0 -38.0 0.0625 43 48 42
-25.0 -38.0 0.0625 42 46 41
-24.0 -38.0 0.0625 44 50 44
69.0 -38.0 0.03333333333333333 183 76 29
73.0 -38.0 0.03333333333333333 192 82 29
103.0 -38.0 0.07692307692307693 98 50 31
104.0 -38.0 0.07692307692307693 122 116 89
139.0 -38.0 0.043478260869565216 100 94 81
149.0 -38.0 0.08333333333333333 122 105 96
159.0 -38.0 0.125 105 93 83
-170.0 -37.0 0.1 72 81 83
-135.0 -37.0 0.045454545454545456 53 46 43
-131.0 -37.0 0.08333333333333333 27 26 21
-108.0 -37.0 0.125 9 16 13
-87.0 -37.0 0.1111111111111111 10 17 13
-45.0 -37.0 0.08333333333333333 37 37 34
-43.0 -37.0 0.08333333333333333 68 64 64
-39.0 -37.0 0.08333333333333333 58 56 53
-26.0 -37.0 0.0625 9 24 13
-25.0 -37.0 0.0625 9 23 12
24.0 -37.0 0.045454545454545456 77 77 74
67.0 -37.0 0.03333333333333333 177 74 25
68.0 -37.0 0.03333333333333333 183 79 28
69.0 -37.0 0.03333333333333333 186 77 26
73.0 -37.0 0.03333333333333333 193 81 30
138.0 -37.0 0.043478260869565216 123 108 97
139.0 -37.0 0.043478260869565216 124 106 97
148.0 -37.0 0.09090909090909091 119 111 99
-145.0 -36.0 0.08333333333333333 12 21 19
-131.0 -36.0 0.07142857142857142 200 141 118
-108.0 -36.0 0.125 12 17 14
-93.0 -36.0 0.1 10 18 14
-87.0 -36.0 0.1111111111111111 12 19 16
-44.0 -36.0 0.08333333333333333 21 33 23
-43.0 -36.0 0.08333333333333333 63 61 60
-39.0 -36.0 0.08333333333333333 47 51 44
-28.0 -36.0 0.08333333333333333 8 16 14
3.0 -36.0 0.125 13 20 14
58.0 -36.0 0.03333333333333333 20 25 19
59.0 -36.0 0.03333333333333333 19 23 16
66.0 -36.0 0.03333333333333333 173 74 29
67.0 -36.0 0.03333333333333333 178 74 27
68.0 -36.0 0.03333333333333333 184 77 29
69.0 -36.0 0.03333333333333333 187 77 27
73.0 -36.0 0.03333333333333333 195 82 31
74.0 -36.0 0.03333333333333333 197 85 34
130.0 -36.0 0.06666666666666667 106 74 25
148.0 -36.0 0.09090909090909091 128 115 102
156.0 -36.0 0.16666666666666666 119 109 95
186.0 -36.0 0.14285714285714285 140 125 107
-159.0 -35.0 0.09090909090909091 116 119 119
-110.0 -35.0 0.125 28 31 30
-86.0 -35.0 0.1111111111111111 40 38 34
-85.0 -35.0 0.1111111111111111 27 27 23
-31.0 -35.0 0.08333333333333333 19 25 22
3.0 -35.0 0.125 12 20 14
20.0 -35.0 0.041666666666666664 36 32 22
51.0 -35.0 0.041666666666666664 21 24 20
57.0 -35.0 0.03333333333333333 20 25 18
58.0 -35.0 0.03333333333333333 20 25 20
59.0 -35.0 0.03333333333333333 19 25 17
60.0 -35.0 0.034482758620689655 22 27 19
65.0 -35.0 0.03333333333333333 167 73 24
66.0 -35.0 0.03333333333333333 174 74 26
67.0 -35.0 0.03333333333333333 182 77 25
68.0 -35.0 0.03333333333333333 184 81 28
69.0 -35.0 0.03333333333333333 187 78 27
73.0 -35.0 0.03333333333333333 194 82 31
74.0 -35.0 0.03333333333333333 199 86 36
104.0 -35.0 0.07142857142857142 87 46 30
130.0 -35.0 0.06666666666666667 105 67 12
140.0 -35.0 0.2 99 95 79
148.0 -35.0 0.09090909090909091 108 105 87
171.0 -35.0 0.045454545454545456 129 116 99
175.0 -35.0 0.16666666666666666 131 117 102
186.0 -35.0 0.14285714285714285 139 125 106
-159.0 -34.0 0.09090909090909091 111 115 112
-131.0 -34.0 0.07142857142857142 81 84 63
-97.0 -34.0 0.07142857142857142 12 20 18
-87.0 -34.0 0.1111111111111111 116 93 94
-86.0 -34.0 0.1111111111111111 98 80 80
-85.0 -34.0 0.1111111111111111 79 64 64
-84.0 -34.0 0.1111111111111111 64 53 50
-83.0 -34.0 0.1111111111111111 41 37 32
-79.0 -34.0 0.1111111111111111 10 17 14
-31.0 -34.0 0.08333333333333333 23 30 27
-9.0 -34.0 0.1 12 19 13
17.0 -34.0 0.047619047619047616 44 32 18
51.0 -34.0 0.045454545454545456 20 20 14
57.0 -34.0 0.03333333333333333 16 19 13
59.0 -34.0 0.03333333333333333 15 19 12
60.0 -34.0 0.034482758620689655 19 20 13
64.0 -34.0 0.034482758620689655 161 71 28
65.0 -34.0 0.034482758620689655 170 72 27
66.0 -34.0 0.03333333333333333 178 75 28
67.0 -34.0 0.03333333333333333 181 73 26
68.0 -34.0 0.03333333333333333 187 77 30
69.0 -34.0 0.03333333333333333 188 79 28
73.0 -34.0 0.03333333333333333 197 83 30
74.0 -34.0 0.03333333333333333 198 87 37
90.0 -34.0 0.047619047619047616 191 81 34
104.0 -34.0 0.07142857142857142 87 47 32
130.0 -34.0 0.06666666666666667 103 66 12
174.0 -34.0 0.14285714285714285 134 119 105
-144.0 -33.0 0.1 44 51 44
-109.0 -33.0 0.14285714285714285 58 53 49
-94.0 -33.0 0.058823529411764705 127 101 104
-86.0 -33.0 0.1111111111111111 111 100 93
-85.0 -33.0 0.1111111111111111 111 95 94
-84.0 -33.0 0.1111111111111111 113 95 96
-83.0 -33.0 0.1111111111111111 102 82 82
-82.0 -33.0 0.1111111111111111 82 67 68
-81.0 -33.0 0.1111111111111111 59 48 49
-80.0 -33.0 0.1111111111111111 40 38 35
-79.0 -33.0 0.1111111111111111 48 44 42
-59.0 -33.0 0.08333333333333333 32 37 32
-47.0 -33.0 0.08333333333333333 19 31 24
-46.0 -33.0 0.08333333333333333 19 31 26
-45.0 -33.0 0.08333333333333333 14 23 19
-44.0 -33.0 0.08333333333333333 9 18 12
-43.0 -33.0 0.08333333333333333 12 20 14
-19.0 -33.0 0.25 19 24 19
-5.0 -33.0 0.1 7 16 11
17.0 -33.0 0.047619047619047616 45 37 18
51.0 -33.0 0.045454545454545456 33 28 22
59.0 -33.0 0.03333333333333333 30 23 16
63.0 -33.0 0.034482758620689655 150 64 24
64.0 -33.0 0.034482758620689655 164 70 28
65.0 -33.0 0.034482758620689655 174 72 27
90.0 -33.0 0.047619047619047616 189 79 30
103.0 -33.0 0.03571428571428571 94 39 19
104.0 -33.0 0.03571428571428571 87 57 38
-188.0 -32.0 0.14285714285714285 8 15 12
-144.0 -32.0 0.1 52 55 48
-106.0 -32.0 0.1111111111111111 71 66 61
-105.0 -32.0 0.1111111111111111 67 61 55
-104.0 -32.0 0.1111111111111111 43 49 38
-97.0 -32.0 0.07142857142857142 151 132 130
-82.0 -32.0 0.1111111111111111 114 98 95
-81.0 -32.0 0.1111111111111111 106 88 87
-80.0 -32.0 0.1111111111111111 95 80 78
-79.0 -32.0 0.1111111111111111 77 69 62
-59.0 -32.0 0.08333333333333333 45 46 43
-58.0 -32.0 0.08333333333333333 45 44 44
-57.0 -32.0 0.08333333333333333 41 42 40
-55.0 -32.0 0.08333333333333333 46 47 47
-51.0 -32.0 0.08333333333333333 68 62 65
-49.0 -32.0 0.08333333333333333 5 11 6
-48.0 -32.0 0.08333333333333333 9 19 14
-47.0 -32.0 0.08333333333333333 8 17 12
-46.0 -32.0 0.08333333333333333 13 22 18
-45.0 -32.0 0.08333333333333333 10 18 12
-44.0 -32.0 0.08333333333333333 10 18 15
-43.0 -32.0 0.08333333333333333 9 17 11
-5.0 -32.0 0.1 6 14 9
-4.0 -32.0 0.1 7 15 13
51.0 -32.0 0.045454545454545456 43 33 24
61.0 -32.0 0.034482758620689655 96 52 24
62.0 -32.0 0.034482758620689655 140 66 32
63.0 -32.0 0.034482758620689655 154 66 26
64.0 -32.0 0.034482758620689655 167 71 29
65.0 -32.0 0.034482758620689655 173 74 27
102.0 -32.0 0.03571428571428571 110 53 27
104.0 -32.0 0.03571428571428571 95 74 50
158.0 -32.0 0.045454545454545456 140 124 109
181.0 -32.0 0.1 129 115 100
182.0 -32.0 0.1 128 114 101
-188.0 -31.0 0.14285714285714285 6 14 12
-146.0 -31.0 0.1 13 22 21
-145.0 -31.0 0.1 25 32 32
-134.0 -31.0 0.045454545454545456 17 18 12
-114.0 -31.0 0.1 64 66 59
-109.0 -31.0 0.125 75 68 61
-106.0 -31.0 0.1111111111111111 74 68 60
-103.0 -31.0 0.1 1 18 2
-102.0 -31.0 0.1 17 43 18
-65.0 -31.0 0.14285714285714285 147 136 128
-59.0 -31.0 0.08333333333333333 54 52 48
-55.0 -31.0 0.08333333333333333 58 59 54
-51.0 -31.0 0.08333333333333333 82 75 73
-49.0 -31.0 0.08333333333333333 4 7 6
-48.0 -31.0 0.08333333333333333 8 17 12
-47.0 -31.0 0.08333333333333333 9 17 12
-3.0 -31.0 0.1 5 12 8
-2.0 -31.0 0.1 6 16 12
20.0 -31.0 0.041666666666666664 22 22 8
62.0 -31.0 0.034482758620689655 148 64 28
63.0 -31.0 0.034482758620689655 158 68 25
64.0 -31.0 0.034482758620689655 169 74 29
65.0 -31.0 0.034482758620689655 173 72 27
66.0 -31.0 0.034482758620689655 182 77 29
76.0 -31.0 0.03333333333333333 208 99 52
86.0 -31.0 0.038461538461538464 199 83 31
181.0 -31.0 0.1 104 98 83
182.0 -31.0 0.1 91 92 75
-188.0 -30.0 0.14285714285714285 7 14 11
-146.0 -30.0 0.1 14 22 20
-145.0 -30.0 0.1 27 35 33
-115.0 -30.0 0.1 61 63 59
-114.0 -30.0 0.1 61 64 57
-107.0 -30.0 0.125 72 67 58
-105.0 -30.0 0.125 66 63 57
-102.0 -30.0 0.1 10 22 14
-59.0 -30.0 0.08333333333333333 56 56 49
-55.0 -30.0 0.08333333333333333 58 58 52
-47.0 -30.0 0.08333333333333333 7 16 11
-37.0 -30.0 0.045454545454545456 31 36 34
-34.0 -30.0 0.1 13 21 17
-33.0 -30.0 0.1 9 14 11
-32.0 -30.0 0.1 8 16 13
20.0 -30.0 0.041666666666666664 25 23 10
36.0 -30.0 0.03571428571428571 36 27 21
37.0 -30.0 0.03571428571428571 57 46 37
62.0 -30.0 0.034482758620689655 151 66 27
63.0 -30.0 0.034482758620689655 163 70 25
64.0 -30.0 0.034482758620689655 173 74 28
76.0 -30.0 0.03333333333333333 209 97 53
86.0 -30.0 0.038461538461538464 197 81 30
141.0 -30.0 0.034482758620689655 121 107 92
146.0 -30.0 0.03333333333333333 128 115 103
-188.0 -29.0 0.14285714285714285 6 14 11
-179.0 -29.0 0.16666666666666666 9 16 13
-146.0 -29.0 0.1 14 25 18
-145.0 -29.0 0.1 28 40 35
-132.0 -29.0 0.041666666666666664 77 72 67
-115.0 -29.0 0.1 66 64 57
-114.0 -29.0 0.1 65 64 55
-102.0 -29.0 0.1 9 15 13
-59.0 -29.0 0.08333333333333333 53 56 49
-49.0 -29.0 0.08333333333333333 12 12 11
-47.0 -29.0 0.08333333333333333 8 14 10
-37.0 -29.0 0.045454545454545456 46 47 48
-34.0 -29.0 0.1 8 17 13
20.0 -29.0 0.041666666666666664 24 22 9
62.0 -29.0 0.034482758620689655 153 67 27
63.0 -29.0 0.034482758620689655 167 70 26
64.0 -29.0 0.034482758620689655 174 73 28
69.0 -29.0 0.03333333333333333 193 81 29
70.0 -29.0 0.03333333333333333 195 82 31
73.0 -29.0 0.03333333333333333 201 84 36
87.0 -29.0 0.038461538461538464 193 80 28
152.0 -29.0 0.09090909090909091 114 107 89
-188.0 -28.0 0.14285714285714285 6 14 12
-177.0 -28.0 0.125 8 17 13
-146.0 -28.0 0.1 10 20 17
-145.0 -28.0 0.1 22 32 27
-135.0 -28.0 0.045454545454545456 25 19 9
-134.0 -28.0 0.045454545454545456 40 33 26
-115.0 -28.0 0.1 60 60 49
-89.0 -28.0 0.03571428571428571 116 109 96
-59.0 -28.0 0.08333333333333333 55 57 50
-47.0 -28.0 0.08333333333333333 7 14 11
-37.0 -28.0 0.045454545454545456 14 24 14
-35.0 -28.0 0.1 6 14 12
49.0 -28.0 0.045454545454545456 49 40 27
59.0 -28.0 0.03333333333333333 63 41 25
62.0 -28.0 0.034482758620689655 159 69 27
63.0 -28.0 0.034482758620689655 170 73 26
64.0 -28.0 0.034482758620689655 175 74 29
69.0 -28.0 0.03333333333333333 193 81 29
70.0 -28.0 0.03333333333333333 196 82 30
73.0 -28.0 0.03333333333333333 202 88 35
87.0 -28.0 0.038461538461538464 193 81 28
147.0 -28.0 0.03333333333333333 132 118 104
148.0 -28.0 0.03333333333333333 129 116 100
183.0 -28.0 0.1 125 107 99
-187.0 -27.0 0.125 5 14 12
-177.0 -27.0 0.125 11 19 16
-147.0 -27.0 0.1 4 12 8
-146.0 -27.0 0.1 7 16 14
-145.0 -27.0 0.1 16 24 21
-89.0 -27.0 0.03571428571428571 117 108 98
-59.0 -27.0 0.08333333333333333 58 58 51
49.0 -27.0 0.045454545454545456 47 39 27
59.0 -27.0 0.03333333333333333 72 42 24
62.0 -27.0 0.034482758620689655 162 71 26
63.0 -27.0 0.034482758620689655 172 72 26
64.0 -27.0 0.034482758620689655 178 75 27
69.0 -27.0 0.03333333333333333 195 80 29
70.0 -27.0 0.03333333333333333 197 82 31
71.0 -27.0 0.03333333333333333 199 84 31
72.0 -27.0 0.03333333333333333 200 85 35
87.0 -27.0 0.038461538461538464 192 79 28
112.0 -27.0 0.058823529411764705 43 40 28
147.0 -27.0 0.03333333333333333 126 114 98
149.0 -27.0 0.03333333333333333 125 111 98
186.0 -27.0 0.25 135 122 107
-187.0 -26.0 0.125 7 14 11
-147.0 -26.0 0.1 4 10 10
-146.0 -26.0 0.1 8 15 14
-145.0 -26.0 0.1 16 24 21
-127.0 -26.0 0.1 74 69 60
-59.0 -26.0 0.08333333333333333 58 59 54
49.0 -26.0 0.045454545454545456 48 39 30
59.0 -26.0 0.03333333333333333 84 46 24
62.0 -26.0 0.034482758620689655 165 71 28
63.0 -26.0 0.034482758620689655 170 71 24
64.0 -26.0 0.034482758620689655 179 76 28
69.0 -26.0 0.03333333333333333 193 81 28
70.0 -26.0 0.03333333333333333 196 83 31
71.0 -26.0 0.03333333333333333 199 83 31
72.0 -26.0 0.03333333333333333 200 85 34
86.0 -26.0 0.038461538461538464 196 82 32
87.0 -26.0 0.038461538461538464 192 80 30
186.0 -26.0 0.25 119 112 96
-187.0 -25.0 0.125 7 14 11
-152.0 -25.0 0.1 16 35 28
-150.0 -25.0 0.1 0 9 4
-149.0 -25.0 0.1 7 12 10
-148.0 -25.0 0.1 6 14 12
-147.0 -25.0 0.1 4 11 8
-146.0 -25.0 0.1 8 16 14
-142.0 -25.0 0.1111111111111111 23 31 26
-127.0 -25.0 0.1 71 68 61
-124.0 -25.0 0.06666666666666667 79 75 67
-106.0 -25.0 0.1111111111111111 71 68 60
-95.0 -25.0 0.16666666666666666 130 122 114
-60.0 -25.0 0.08333333333333333 59 58 53
-59.0 -25.0 0.08333333333333333 60 59 53
-40.0 -25.0 0.1111111111111111 11 22 17
-36.0 -25.0 0.1 7 16 12
15.0 -25.0 0.034482758620689655 68 51 38
49.0 -25.0 0.045454545454545456 49 41 32
59.0 -25.0 0.03333333333333333 99 52 25
62.0 -25.0 0.034482758620689655 170 73 27
63.0 -25.0 0.034482758620689655 175 72 26
64.0 -25.0 0.034482758620689655 179 75 27
69.0 -25.0 0.03333333333333333 194 80 29
70.0 -25.0 0.03333333333333333 198 84 32
71.0 -25.0 0.03333333333333333 198 82 31
87.0 -25.0 0.038461538461538464 191 80 29
134.0 -25.0 0.07142857142857142 49 9 5
165.0 -25.0 0.038461538461538464 132 119 104
-187.0 -24.0 0.125 7 14 13
-152.0 -24.0 0.1 15 35 28
-149.0 -24.0 0.1 6 11 10
-148.0 -24.0 0.1 6 13 11
-147.0 -24.0 0.1 4 11 9
-146.0 -24.0 0.1 7 16 13
-129.0 -24.0 0.1 50 51 42
-128.0 -24.0 0.1 51 54 46
-106.0 -24.0 0.1111111111111111 65 65 60
-91.0 -24.0 0.03333333333333333 102 96 85
-60.0 -24.0 0.08333333333333333 63 63 56
-59.0 -24.0 0.08333333333333333 60 58 52
-29.0 -24.0 0.058823529411764705 87 87 79
3.0 -24.0 0.1111111111111111 16 20 18
15.0 -24.0 0.034482758620689655 64 48 35
57.0 -24.0 0.03333333333333333 50 38 30
62.0 -24.0 0.034482758620689655 171 73 29
69.0 -24.0 0.03333333333333333 194 82 29
70.0 -24.0 0.03333333333333333 198 84 33
71.0 -24.0 0.03333333333333333 198 84 31
122.0 -24.0 0.043478260869565216 92 26 22
-187.0 -23.0 0.125 7 13 11
-152.0 -23.0 0.1 15 34 26
-149.0 -23.0 0.1 7 12 11
-148.0 -23.0 0.1 6 14 11
-146.0 -23.0 0.1 8 16 14
-59.0 -23.0 0.08333333333333333 58 58 51
-30.0 -23.0 0.058823529411764705 17 32 20
-29.0 -23.0 0.058823529411764705 87 86 78
23.0 -23.0 0.04 82 67 48
24.0 -23.0 0.04 89 78 50
62.0 -23.0 0.034482758620689655 173 75 31
69.0 -23.0 0.03333333333333333 193 82 31
125.0 -23.0 0.037037037037037035 89 25 15
-185.0 -22.0 0.1 7 14 11
-152.0 -22.0 0.1 13 32 27
-149.0 -22.0 0.1 6 11 10
-148.0 -22.0 0.1 6 14 12
-126.0 -22.0 0.25 82 77 70
-116.0 -22.0 0.07692307692307693 70 68 59
-67.0 -22.0 0.037037037037037035 59 56 46
-63.0 -22.0 0.07692307692307693 26 44 28
-51.0 -22.0 0.08333333333333333 49 49 46
-32.0 -22.0 0.05263157894736842 29 31 27
48.0 -22.0 0.047619047619047616 52 42 34
54.0 -22.0 0.03571428571428571 49 43 31
57.0 -22.0 0.03333333333333333 53 39 26
62.0 -22.0 0.034482758620689655 175 76 29
67.0 -22.0 0.03333333333333333 189 80 28
68.0 -22.0 0.03333333333333333 193 83 32
69.0 -22.0 0.03333333333333333 195 82 31
71.0 -22.0 0.03333333333333333 200 86 36
90.0 -22.0 0.037037037037037035 180 78 33
162.0 -22.0 0.043478260869565216 129 117 103
-185.0 -21.0 0.1 7 15 12
-148.0 -21.0 0.1 6 14 12
-138.0 -21.0 0.1111111111111111 28 31 21
-119.0 -21.0 0.08333333333333333 65 62 56
-63.0 -21.0 0.07692307692307693 12 26 14
-62.0 -21.0 0.07692307692307693 48 57 48
-54.0 -21.0 0.125 57 59 55
-53.0 -21.0 0.08333333333333333 59 59 54
-52.0 -21.0 0.08333333333333333 54 55 50
-32.0 -21.0 0.05263157894736842 74 62 58
57.0 -21.0 0.03333333333333333 62 40 26
62.0 -21.0 0.034482758620689655 178 74 29
67.0 -21.0 0.03333333333333333 191 81 30
68.0 -21.0 0.03333333333333333 193 82 31
69.0 -21.0 0.03333333333333333 197 83 32
71.0 -21.0 0.03333333333333333 202 86 37
90.0 -21.0 0.037037037037037035 175 76 33
145.0 -21.0 0.16666666666666666 132 116 104
148.0 -21.0 0.03333333333333333 118 109 96
-186.0 -20.0 0.1111111111111111 7 15 12
-185.0 -20.0 0.1 7 14 13
-133.0 -20.0 0.03571428571428571 73 71 65
-118.0 -20.0 0.1 70 67 58
-106.0 -20.0 0.14285714285714285 67 62 57
-73.0 -20.0 0.1111111111111111 99 95 88
-62.0 -20.0 0.07692307692307693 18 32 22
-52.0 -20.0 0.08333333333333333 28 33 29
-44.0 -20.0 0.2 22 25 21
23.0 -20.0 0.03333333333333333 47 40 26
57.0 -20.0 0.03333333333333333 73 42 23
60.0 -20.0 0.034482758620689655 164 71 28
61.0 -20.0 0.034482758620689655 173 71 25
62.0 -20.0 0.034482758620689655 180 76 27
67.0 -20.0 0.03333333333333333 192 81 30
68.0 -20.0 0.03333333333333333 196 83 34
69.0 -20.0 0.03333333333333333 195 83 33
70.0 -20.0 0.03333333333333333 200 86 36
71.0 -20.0 0.03333333333333333 202 89 40
90.0 -20.0 0.037037037037037035 174 75 31
148.0 -20.0 0.03333333333333333 126 116 103
-186.0 -19.0 0.1111111111111111 7 14 12
-185.0 -19.0 0.1 7 14 12
-134.0 -19.0 0.03571428571428571 22 29 23
-133.0 -19.0 0.03571428571428571 76 72 67
-106.0 -19.0 0.14285714285714285 63 59 54
-74.0 -19.0 0.1111111111111111 114 104 95
-73.0 -19.0 0.1111111111111111 110 100 93
-52.0 -19.0 0.08333333333333333 9 19 13
-44.0 -19.0 0.2 30 37 29
47.0 -19.0 0.045454545454545456 48 41 30
60.0 -19.0 0.034482758620689655 166 72 28
61.0 -19.0 0.034482758620689655 174 71 27
62.0 -19.0 0.034482758620689655 181 76 29
67.0 -19.0 0.03333333333333333 192 82 29
68.0 -19.0 0.03333333333333333 195 84 33
69.0 -19.0 0.03333333333333333 197 84 33
70.0 -19.0 0.03333333333333333 200 87 37
71.0 -19.0 0.03333333333333333 202 88 39
89.0 -19.0 0.037037037037037035 177 76 31
148.0 -19.0 0.03333333333333333 127 116 104
-186.0 -18.0 0.1111111111111111 7 13 12
-185.0 -18.0 0.1 7 13 12
-148.0 -18.0 0.1 79 70 72
-134.0 -18.0 0.03571428571428571 28 35 27
-133.0 -18.0 0.03571428571428571 79 74 70
-74.0 -18.0 0.1111111111111111 112 105 95
-47.0 -18.0 0.03571428571428571 13 27 16
24.0 -18.0 0.03571428571428571 48 42 33
60.0 -18.0 0.034482758620689655 167 73 27
67.0 -18.0 0.03333333333333333 195 82 29
68.0 -18.0 0.03333333333333333 196 83 32
69.0 -18.0 0.03333333333333333 198 83 32
70.0 -18.0 0.03333333333333333 200 88 37
71.0 -18.0 0.03333333333333333 201 87 37
72.0 -18.0 0.03333333333333333 205 94 44
89.0 -18.0 0.037037037037037035 175 73 30
108.0 -18.0 0.0625 44 26 28
-186.0 -17.0 0.1111111111111111 7 14 11
-185.0 -17.0 0.1 7 14 11
-151.0 -17.0 0.1 43 52 52
-148.0 -17.0 0.1 107 100 97
-75.0 -17.0 0.1 105 99 88
-74.0 -17.0 0.1111111111111111 107 102 90
-56.0 -17.0 0.05555555555555555 52 50 55
-29.0 -17.0 0.16666666666666666 78 75 65
60.0 -17.0 0.034482758620689655 170 72 28
67.0 -17.0 0.03333333333333333 194 81 30
68.0 -17.0 0.03333333333333333 196 85 33
70.0 -17.0 0.03333333333333333 200 89 37
71.0 -17.0 0.03333333333333333 202 89 39
138.0 -17.0 0.1 133 128 112
154.0 -17.0 0.05555555555555555 138 123 109
-186.0 -16.0 0.1111111111111111 8 15 11
-185.0 -16.0 0.1 7 14 11
-48.0 -16.0 0.043478260869565216 24 31 24
-36.0 -16.0 0.1 94 95 78
46.0 -16.0 0.045454545454545456 38 35 25
60.0 -16.0 0.034482758620689655 172 74 27
67.0 -16.0 0.03333333333333333 194 81 30
68.0 -16.0 0.03333333333333333 197 84 33
70.0 -16.0 0.03333333333333333 201 89 40
71.0 -16.0 0.03333333333333333 202 92 43
112.0 -16.0 0.058823529411764705 73 16 12
163.0 -16.0 0.03333333333333333 134 120 105
-185.0 -15.0 0.1 6 13 12
-153.0 -15.0 0.1 152 138 137
-152.0 -15.0 0.1 4 25 19
-151.0 -15.0 0.1 41 52 54
-150.0 -15.0 0.1 13 25 17
-149.0 -15.0 0.1 35 42 38
-115.0 -15.0 0.1 76 69 62
-67.0 -15.0 0.1111111111111111 8 16 14
-48.0 -15.0 0.043478260869565216 84 75 80
4.0 -15.0 0.038461538461538464 4 12 9
15.0 -15.0 0.034482758620689655 32 23 9
60.0 -15.0 0.034482758620689655 175 74 28
68.0 -15.0 0.03333333333333333 197 84 38
71.0 -15.0 0.03333333333333333 203 94 46
95.0 -15.0 0.06666666666666667 127 51 21
112.0 -15.0 0.058823529411764705 74 16 11
126.0 -15.0 0.03571428571428571 89 87 61
129.0 -15.0 0.0625 80 19 15
144.0 -15.0 0.1 123 109 96
145.0 -15.0 0.1 127 112 97
153.0 -15.0 0.05555555555555555 128 116 101
-185.0 -14.0 0.1 6 12 12
-153.0 -14.0 0.1 158 141 140
-152.0 -14.0 0.1 4 25 19
-151.0 -14.0 0.1 42 51 55
-150.0 -14.0 0.1 18 27 21
-117.0 -14.0 0.1 69 67 60
-115.0 -14.0 0.1 74 69 61
4.0 -14.0 0.038461538461538464 4 12 11
7.0 -14.0 0.045454545454545456 66 59 43
14.0 -14.0 0.034482758620689655 35 37 26
45.0 -14.0 0.045454545454545456 17 20 16
53.0 -14.0 0.034482758620689655 23 23 15
56.0 -14.0 0.034482758620689655 107 57 26
57.0 -14.0 0.034482758620689655 148 64 29
58.0 -14.0 0.034482758620689655 160 69 27
59.0 -14.0 0.034482758620689655 170 71 28
68.0 -14.0 0.03333333333333333 198 85 34
71.0 -14.0 0.03333333333333333 206 96 50
95.0 -14.0 0.06666666666666667 125 51 17
112.0 -14.0 0.058823529411764705 72 16 11
176.0 -14.0 0.2 128 116 100
-187.0 -13.0 0.125 8 14 12
-186.0 -13.0 0.1111111111111111 8 14 11
-185.0 -13.0 0.1 6 14 12
-153.0 -13.0 0.1 155 138 140
-151.0 -13.0 0.1 40 51 55
-142.0 -13.0 0.1111111111111111 118 110 101
-133.0 -13.0 0.1 10 19 12
-117.0 -13.0 0.1 71 66 59
-115.0 -13.0 0.1 74 69 62
-52.0 -13.0 0.08333333333333333 19 31 24
45.0 -13.0 0.045454545454545456 60 52 46
55.0 -13.0 0.034482758620689655 74 45 28
56.0 -13.0 0.034482758620689655 126 61 30
57.0 -13.0 0.034482758620689655 151 65 27
58.0 -13.0 0.034482758620689655 164 71 27
59.0 -13.0 0.034482758620689655 175 72 27
68.0 -13.0 0.03333333333333333 198 86 36
95.0 -13.0 0.06666666666666667 120 48 18
112.0 -13.0 0.058823529411764705 70 14 8
166.0 -13.0 0.1111111111111111 121 110 95
-187.0 -12.0 0.125 7 14 12
-186.0 -12.0 0.1111111111111111 8 15 12
-185.0 -12.0 0.1 8 14 12
-153.0 -12.0 0.1 72 86 77
-152.0 -12.0 0.1 20 42 40
-151.0 -12.0 0.1 30 45 45
-142.0 -12.0 0.1111111111111111 113 107 96
-116.0 -12.0 0.1 76 72 63
-115.0 -12.0 0.1 74 70 64
-62.0 -12.0 0.08333333333333333 23 40 20
-61.0 -12.0 0.08333333333333333 27 32 24
-52.0 -12.0 0.08333333333333333 20 29 24
-36.0 -12.0 0.1 104 101 86
56.0 -12.0 0.034482758620689655 128 52 20
57.0 -12.0 0.034482758620689655 161 71 32
58.0 -12.0 0.034482758620689655 169 72 26
59.0 -12.0 0.034482758620689655 174 71 25
68.0 -12.0 0.03333333333333333 197 85 35
70.0 -12.0 0.03333333333333333 202 91 45
112.0 -12.0 0.058823529411764705 72 14 11
148.0 -12.0 0.03571428571428571 119 111 95
178.0 -12.0 0.2 132 118 105
-187.0 -11.0 0.125 10 17 14
-186.0 -11.0 0.1111111111111111 10 18 14
-153.0 -11.0 0.1 39 58 57
-152.0 -11.0 0.1 34 49 54
-151.0 -11.0 0.1 27 42 43
-118.0 -11.0 0.1 60 62 57
-117.0 -11.0 0.1 65 66 58
-62.0 -11.0 0.08333333333333333 6 12 10
-61.0 -11.0 0.08333333333333333 11 20 15
-56.0 -11.0 0.1111111111111111 33 41 35
-52.0 -11.0 0.08333333333333333 9 20 17
-36.0 -11.0 0.1 98 96 81
58.0 -11.0 0.034482758620689655 171 74 29
66.0 -11.0 0.03333333333333333 196 84 35
148.0 -11.0 0.03571428571428571 125 114 101
151.0 -11.0 0.0625 131 116 103
-154.0 -10.0 0.1 43 61 67
-153.0 -10.0 0.1 35 55 59
-152.0 -10.0 0.1 34 53 56
-151.0 -10.0 0.1 26 42 44
-133.0 -10.0 0.1 11 18 13
-118.0 -10.0 0.1 67 65 61
-117.0 -10.0 0.1 67 66 62
-110.0 -10.0 0.16666666666666666 68 66 62
-62.0 -10.0 0.08333333333333333 0 3 0
-61.0 -10.0 0.08333333333333333 13 17 17
-56.0 -10.0 0.1111111111111111 26 35 30
-36.0 -10.0 0.1 100 96 81
24.0 -10.0 0.03333333333333333 117 115 82
58.0 -10.0 0.034482758620689655 172 73 27
72.0 -10.0 0.045454545454545456 208 94 50
148.0 -10.0 0.03571428571428571 126 116 100
177.0 -10.0 0.16666666666666666 131 116 102
-156.0 -9.0 0.1 34 55 59
-155.0 -9.0 0.1 38 56 60
-154.0 -9.0 0.1 38 58 63
-153.0 -9.0 0.1 35 53 59
-152.0 -9.0 0.1 35 53 57
-151.0 -9.0 0.1 26 41 40
-149.0 -9.0 0.03333333333333333 29 39 32
-129.0 -9.0 0.1 68 67 60
-125.0 -9.0 0.125 74 69 63
-64.0 -9.0 0.08333333333333333 141 133 126
-63.0 -9.0 0.08333333333333333 75 69 67
-62.0 -9.0 0.08333333333333333 0 7 1
-61.0 -9.0 0.08333333333333333 12 17 15
-56.0 -9.0 0.1111111111111111 22 29 27
-52.0 -9.0 0.08333333333333333 10 18 17
-41.0 -9.0 0.0625 82 85 78
-36.0 -9.0 0.1 106 100 85
40.0 -9.0 0.037037037037037035 114 114 87
49.0 -9.0 0.03571428571428571 80 79 49
50.0 -9.0 0.03571428571428571 82 90 59
58.0 -9.0 0.034482758620689655 174 73 26
178.0 -9.0 0.16666666666666666 114 108 91
-155.0 -8.0 0.1 33 53 59
-154.0 -8.0 0.1 36 56 62
-153.0 -8.0 0.1 36 54 59
-152.0 -8.0 0.1 37 56 61
-151.0 -8.0 0.1 28 42 44
-149.0 -8.0 0.03333333333333333 29 40 34
-129.0 -8.0 0.1 51 58 48
-128.0 -8.0 0.1 68 68 61
-127.0 -8.0 0.1 68 69 56
-125.0 -8.0 0.125 64 66 56
-123.0 -8.0 0.125 63 64 55
-122.0 -8.0 0.1111111111111111 67 67 59
-109.0 -8.0 0.1111111111111111 55 58 51
-65.0 -8.0 0.08333333333333333 37 60 31
-64.0 -8.0 0.08333333333333333 29 54 28
-62.0 -8.0 0.08333333333333333 9 18 12
-61.0 -8.0 0.08333333333333333 9 17 14
-52.0 -8.0 0.08333333333333333 9 18 16
-42.0 -8.0 0.0625 82 88 85
-41.0 -8.0 0.0625 78 82 72
-36.0 -8.0 0.1 107 102 87
44.0 -8.0 0.03333333333333333 46 46 31
90.0 -8.0 0.03571428571428571 154 62 23
159.0 -8.0 0.045454545454545456 135 121 106
-154.0 -7.0 0.1 33 55 59
-153.0 -7.0 0.1 36 55 59
-152.0 -7.0 0.1 41 57 59
-149.0 -7.0 0.03333333333333333 27 37 30
-131.0 -7.0 0.1 60 56 59
-129.0 -7.0 0.1 111 94 95
-128.0 -7.0 0.1 100 89 88
-123.0 -7.0 0.125 91 82 78
-122.0 -7.0 0.1111111111111111 98 88 86
-109.0 -7.0 0.1 89 81 77
-65.0 -7.0 0.08333333333333333 16 30 20
-64.0 -7.0 0.08333333333333333 9 22 16
-36.0 -7.0 0.1 107 102 88
55.0 -7.0 0.03333333333333333 164 72 30
56.0 -7.0 0.03333333333333333 171 77 33
57.0 -7.0 0.03333333333333333 176 76 30
88.0 -7.0 0.037037037037037035 166 67 27
91.0 -7.0 0.037037037037037035 141 54 20
158.0 -7.0 0.045454545454545456 134 120 105
-162.0 -6.0 0.07692307692307693 36 49 44
-156.0 -6.0 0.1 31 51 59
-155.0 -6.0 0.1 33 51 55
-154.0 -6.0 0.1 32 54 60
-153.0 -6.0 0.1 34 52 56
-152.0 -6.0 0.1 37 55 60
-149.0 -6.0 0.03333333333333333 29 39 34
-132.0 -6.0 0.1 32 40 34
-131.0 -6.0 0.1 69 72 66
-130.0 -6.0 0.1 83 88 79
-129.0 -6.0 0.1 85 86 75
-123.0 -6.0 0.125 68 72 63
-113.0 -6.0 0.1 37 43 40
-111.0 -6.0 0.1 99 96 97
-68.0 -6.0 0.08333333333333333 10 20 15
-66.0 -6.0 0.08333333333333333 11 21 18
-65.0 -6.0 0.08333333333333333 19 27 23
-52.0 -6.0 0.08333333333333333 17 25 22
-40.0 -6.0 0.05263157894736842 53 62 49
-39.0 -6.0 0.05263157894736842 66 62 53
-36.0 -6.0 0.1 106 100 85
25.0 -6.0 0.038461538461538464 82 80 65
50.0 -6.0 0.034482758620689655 117 80 57
55.0 -6.0 0.03333333333333333 167 73 31
91.0 -6.0 0.037037037037037035 139 56 20
122.0 -6.0 0.14285714285714285 128 55 27
130.0 -6.0 0.07142857142857142 133 72 34
131.0 -6.0 0.07142857142857142 128 108 67
-162.0 -5.0 0.07692307692307693 39 51 45
-158.0 -5.0 0.1 30 49 52
-157.0 -5.0 0.1 29 50 53
-156.0 -5.0 0.1 26 49 52
-155.0 -5.0 0.1 29 49 54
-152.0 -5.0 0.1 33 53 59
-147.0 -5.0 0.03333333333333333 99 95 86
-132.0 -5.0 0.1 51 57 54
-131.0 -5.0 0.1 93 87 89
-130.0 -5.0 0.1 85 84 81
-129.0 -5.0 0.1 86 84 80
-126.0 -5.0 0.125 81 79 77
-125.0 -5.0 0.125 81 79 75
-113.0 -5.0 0.1 35 37 35
-110.0 -5.0 0.1 120 118 116
-103.0 -5.0 0.03571428571428571 31 33 27
-69.0 -5.0 0.08333333333333333 8 14 12
-68.0 -5.0 0.08333333333333333 10 17 14
-67.0 -5.0 0.08333333333333333 5 13 11
-66.0 -5.0 0.08333333333333333 9 19 16
-65.0 -5.0 0.08333333333333333 13 21 18
-64.0 -5.0 0.08333333333333333 11 21 16
-54.0 -5.0 0.08333333333333333 6 15 11
-53.0 -5.0 0.08333333333333333 6 16 12
-52.0 -5.0 0.08333333333333333 10 20 19
50.0 -5.0 0.034482758620689655 122 64 32
55.0 -5.0 0.03333333333333333 174 76 31
74.0 -5.0 0.038461538461538464 204 89 41
75.0 -5.0 0.038461538461538464 202 84 34
76.0 -5.0 0.038461538461538464 201 86 35
90.0 -5.0 0.03571428571428571 146 59 22
91.0 -5.0 0.03571428571428571 136 53 19
92.0 -5.0 0.037037037037037035 130 52 20
93.0 -5.0 0.037037037037037035 118 49 18
100.0 -5.0 0.034482758620689655 197 192 162
109.0 -5.0 0.1 235 214 185
179.0 -5.0 0.1 132 119 102
183.0 -5.0 0.16666666666666666 133 119 103
-156.0 -4.0 0.1 26 48 54
-155.0 -4.0 0.1 28 48 54
-152.0 -4.0 0.1 34 53 56
-132.0 -4.0 0.1 46 55 50
-131.0 -4.0 0.1 90 88 85
-130.0 -4.0 0.1 80 81 76
-115.0 -4.0 0.08333333333333333 40 49 39
-95.0 -4.0 0.1 154 95 67
-69.0 -4.0 0.08333333333333333 10 18 16
-68.0 -4.0 0.08333333333333333 9 18 17
-67.0 -4.0 0.08333333333333333 6 15 12
-66.0 -4.0 0.08333333333333333 7 16 14
-65.0 -4.0 0.08333333333333333 5 14 11
-57.0 -4.0 0.08333333333333333 4 13 9
-56.0 -4.0 0.08333333333333333 7 15 12
-55.0 -4.0 0.08333333333333333 6 14 10
-54.0 -4.0 0.08333333333333333 9 18 16
40.0 -4.0 0.038461538461538464 180 157 135
49.0 -4.0 0.034482758620689655 127 55 31
50.0 -4.0 0.034482758620689655 145 68 32
55.0 -4.0 0.03333333333333333 176 78 30
71.0 -4.0 0.041666666666666664 238 129 106
90.0 -4.0 0.03571428571428571 145 58 23
92.0 -4.0 0.037037037037037035 127 52 21
93.0 -4.0 0.037037037037037035 120 55 23
